# 3D point list with one line of data per point:
#   POINT3D_ID, X, Y, Z, R, G, B, ERROR, TRACK[] as (IMAGE_ID, POINT2D_IDX)
# Number of points: 378, mean track length: 4.9302442891114797
16318 -0.75531890714825478 0.73570530820212221 3.1593280917450235 181 129 75 0.2813363033024418 74 507 95 554 36 591 77 484
16319 -0.69312200465746476 0.76935734075522888 3.2444127465114354 181 166 131 0.8923082544201234 19 479 95 557 10 486 1 446
16320 -0.77463980120551645 0.84780009277529667 3.3418095252258042 188 166 128 1.1877248556751785 74 511 95 558 10 665 36 655 77 493 7 387 17 267 32 252
16321 0.072916603717694622 0.43018715363628912 1.6474788668453781 86 66 47 0.84125266535435372 74 425 95 562 7 469 19 563 17 429
16322 -0.93304681817080992 1.0160955069320692 2.145406194343551 179 132 97 0.63776272073958507 74 517 95 565 17 474 19 642
16323 -0.011642554130932844 1.0648747701853056 2.7744659467429278 232 223 144 0.60911413576736817 74 533 95 592 10 593 36 543 77 440
16324 0.048440475870394788 1.0635221877369259 2.79590830528366 220 220 131 0.51336595199861457 74 583 95 594 17 487 19 625 1 518 81 447 66 555 25 717 44 571 60 474 14 555 87 371 23 470 70 524
16325 -0.81824995058760563 0.91310732597432009 2.7594938257458326 50 93 32 0.18381452195503356 74 473 95 602 10 607
16326 -0.40166578991259289 0.79597660800254355 2.9133503323335543 149 159 80 0.55617388488604536 74 553 95 611 10 653 77 569 36 630 7 495 81 412 3 467 51 479 60 436 32 427
16327 -0.19341695548034246 0.88346425071031065 2.9715301914584096 103 163 69 0.61349945002584449 74 551 95 613 10 612 77 528 7 496 81 417 35 518 25 618 83 489 98 500
16328 -0.7469846307995196 0.8214642724264879 3.3232010977179409 75 51 19 0.70760380781419097 74 566 95 621 36 682 10 691 77 586
16329 -0.83766252627438187 0.88473708874035484 3.6700813493703648 0 0 0 0.83222556934601755 46 632 95 623 10 693 36 685 77 551 10 576
16331 -1.1616165036952115 1.3016209311579099 2.7770865966167233 205 182 142 0.63287672365456704 74 587 95 640 77 606
16332 0.31114643668485653 1.1570098019328652 2.9938075115009433 0 0 0 0.066562529318147781 74 592 95 641
16333 -1.3359928368546603 1.6943837169900056 2.8961547658637223 0 0 0 0.48759704643587704 46 710 74 591 95 643 10 684 36 676 77 575
16334 -1.1314148685869119 1.279275526533733 2.9027881829231963 84 63 43 0.9968506154108121 19 595 95 646 36 716 77 609
16335 -0.79473792842840862 0.70250186316646379 3.0832615793879121 214 180 135 0.86341353838139323 74 561 95 650 77 583 36 723
16337 -1.1121433981221676 1.2173064074988769 2.5969704316664988 255 253 196 0.1181356632995694 74 613 95 669 36 702 10 704 77 559
16338 -0.15424567548488924 0.98353130884419282 2.7605590314863191 82 112 64 1.629076084545974 74 616 95 670 7 543 17 516 81 472 87 384 23 465 63 409
16339 -1.1294143212609025 1.2482405223907225 2.6598107862737099 75 117 45 1.0943666263250067 46 743 74 615 95 671
16340 -0.17900340594153663 0.96810726007785397 2.7902038532394449 108 171 75 1.1064615207785704 74 617 95 672 10 645 36 705 7 545 17 517 81 463 44 546 81 444 83 512 18 536 98 537 3 456 51 470
16341 -0.25814393695907617 0.89342254680895083 2.780715273546412 187 186 111 1.6415290655709711 74 618 95 673 10 646 7 546
16342 -0.60659170357077419 0.77671485822493858 2.9676886138003926 155 156 84 1.4588491363365541 74 502 95 678 10 558 36 576 77 470 17 523
16345 -1.1954053173508914 1.4640796496806658 2.5305249020849749 143 204 101 0.40839799323274262 74 636 95 687 7 476
16346 -1.0622315237603379 1.1730060973802716 2.5071276943801988 224 200 154 0.023359731018584989 74 638 95 688
16347 -1.2600125847475645 1.5628833929889741 2.6069720913255132 0 0 0 0.2819338438006066 74 609 95 690
16348 -0.065537758585716782 1.0438637037634302 2.7394873608905361 54 105 52 1.5195844540480188 74 639 95 692 7 580 17 558 81 504 44 624 66 617 60 535 87 415
16349 -0.27746568894013057 0.84365745887013688 2.6896546376265138 211 193 151 1.2645219109460857 28 722 95 693 7 542
16351 -0.69978637061631233 0.60003196824237981 2.5667088760285415 118 154 78 1.3937417076876071 74 641 95 716 7 579 17 515
16352 0.017340337291700626 1.0401209030046876 2.793321769726929 168 197 110 0.2194045631647992 74 687 95 718 7 597
16354 -1.0285356399044094 1.2150335587960204 2.570915491136903 81 70 59 0.51019600847236146 74 685 95 737 10 753
16355 -0.44705738262721517 0.82609830579846943 2.812728941183618 207 199 117 1.082053544536747 74 690 95 743 10 757 36 774 77 657 7 599 17 562 81 496 60 525 32 534
16357 0.26896448761905056 1.3941544279273643 3.521317750715744 0 0 0 1.7908382128010976 74 694 10 689 77 613 1 566
16358 0.0063636775071540044 1.025376986589861 2.912022749329914 131 162 77 1.0620160418569942 74 699 95 755 36 785 77 669
16359 -0.64391856311591444 0.69332591956654843 2.7272749787052097 255 243 193 0.38774715572199892 74 701 95 757 7 605 17 568
16360 -1.0113819389498748 1.1314265893193642 2.8961773162695192 244 223 173 1.4630888390138022 74 692 95 759 10 783 36 794 77 671
16361 0.1002064489869704 1.1798306906085485 3.1264581088845738 0 0 0 2.1241456194571171 95 760 10 775 36 795 77 675 10 784 74 704
16362 0.14124909780975986 0.50552161425596276 1.7000048572503885 236 217 171 0.58670704335186019 74 706 95 761 10 778 7 622
16363 -0.65769277248350289 0.78758600621327923 2.1737536448149952 0 0 0 2.3792852622370009 74 709 95 772
16364 0.38217088076822214 1.0936731169135852 2.6584855348861676 0 0 0 1.7452460673430708 49 1013 95 773 36 805
16366 -0.9672205282554327 1.014234060145222 3.0853118727248434 0 0 0 2.0569227068538853 74 725 95 780 77 695
16367 -0.96003388857014071 1.0588167270863302 2.9204099074924792 169 145 111 0.32418590158425525 28 418 74 186 95 325 88 706 46 392
16368 -0.42432687265745028 0.85502060377319877 2.7979987057029327 62 99 41 0.32409610004931361 46 487 19 452 74 382 95 437 68 954 29 988 37 1050 71 1083 55 351 31 360 38 1098 97 912 72 970 9 1274 48 1063 50 383 36 325 77 257 17 313 1 351 81 217 14 384 87 237 63 247 70 368 89 429 70 452
16370 -0.76813277090467058 0.74799424035008111 3.1165282464557467 87 68 47 0.98771563989703692 41 1039 46 718 95 651 19 607 74 562 10 664 36 680 77 584
16371 -0.92252626980671326 1.0046468279950993 2.7295510131943588 180 170 89 0.52673333270831524 50 1691 12 1684 34 1471 2 1283 88 1242 91 1357 64 1286 49 913 28 755 95 638 46 708 19 589 74 538 10 649 36 669 77 565
16372 -1.0796034259956186 1.1993706541620721 2.9127132329332825 83 56 32 1.0200808895522526 11 1399 96 1456 19 454 41 631 95 536 59 610 50 1048 12 971 34 899 88 924 2 733 64 1191 16 1164 94 859 28 684 49 860 74 486 10 555 36 574 77 464
16374 0.31117846924687453 1.0606140052632138 2.6001659149924605 240 221 173 0.61906038387730677 41 886 46 641 19 490 74 525 95 578 49 709 28 614 10 583 36 606 7 478 17 440 1 474 79 642 70 440 89 424
16375 0.091996073789512189 1.0866286938161167 2.7997439982339327 103 178 78 0.41954789733513514 19 292 74 78 95 60 7 69 1 335 81 297 17 298 66 355 35 287 44 365 83 338 18 354 84 236 14 408 87 244 23 305 63 259 70 352 89 365
16376 -0.7646872932309029 1.1043075044606723 2.6333484910226881 208 184 115 0.28377373917876053 46 312 74 240 95 253 10 251 36 293
16377 -0.80602228639632656 1.4225406287951423 2.7053226736125349 86 152 66 0.5710943710668801 46 97 95 502
16378 -1.0996424122217661 1.3235046117050253 3.0340103708667798 0 0 0 1.046838072622311 74 705 95 764
16379 -0.33575121212310755 0.94968928430218569 2.7413460597941786 53 103 52 1.257271990212381 95 76 10 73 36 60 77 65 95 83 74 92
16380 -0.13817803248712829 0.97780600468729983 2.7867215263289671 106 192 87 0.24687386823031857 74 258 10 75 36 69
16381 -0.48262109864260516 0.88629705411674642 2.7715561336033647 55 99 46 0.14959553320303773 95 288 10 83 36 79 77 254
16384 -0.84655518025028986 0.93107341406395616 2.7956939248587904 174 156 84 0.29476586146840422 95 139 10 106
16385 -0.55984396336291664 0.75930841788000714 2.8727707968951681 225 201 111 0.095984251764903966 74 183 10 121 36 131 7 152
16386 -0.49530785317063558 0.77024781483447236 2.8852603842199489 194 175 96 0.19584507535361961 74 181 10 123 32 100
16387 -0.49516508468545162 0.77127446888358675 2.8850527859048003 194 175 96 0.23012953709624587 74 180 10 124 36 135 7 157 32 99
16388 -1.0723238918612763 1.2548955055624365 2.8345920174238377 224 200 154 1.2890903019265929 49 235 10 132 36 144 77 121
16389 -1.1192993318714244 1.2489568876884294 2.8448853837149133 181 157 123 0.34587194084793604 28 407 10 141 36 151 77 131
16390 0.1899011318594169 1.1143737987169666 3.077885900377773 204 181 137 0.18100304669410558 28 137 10 142 36 190
16391 0.26564673349536316 1.1642498277140745 3.146285395052169 211 195 152 0.37761078581413993 95 322 10 165 36 391 7 171 17 150 81 149 44 183 83 273 18 165 51 286 60 156 32 246
16392 -0.95419069012684965 0.94233107193335686 2.893472882585693 239 218 168 2.3298905958006495 28 235 10 166
16393 -1.0639509536222316 1.1806293383782305 2.9050844634148887 219 197 154 0.17050184975511443 49 268 95 172 10 167
16394 -0.76958408301270897 0.81831107512507317 2.9319306682279485 71 101 44 0.25468221077047221 95 186 10 169 36 193
16395 -0.89039036047617326 0.99450235607042459 2.9271732258683199 219 197 152 0.19268231136375918 94 300 36 197
16397 -0.80207109329993387 0.83184308021941389 3.6141230718237205 239 215 166 0.49976664626738848 28 264 10 206 77 202
16398 -0.80474110908594343 0.82841916591413367 3.6272539606011098 201 178 137 0.16326171038782433 49 303 10 207 36 254
16399 -0.66178891461959732 0.56147612789308388 2.2789905401604935 114 99 79 0.71498879351071987 49 528 10 220 77 217
16400 -0.52403011792361909 2.155974986974285 2.7053806154294557 88 157 71 3.08407515376613 28 68 10 250
16404 -0.72773161879490356 1.0369681594610454 2.6739772440966156 91 147 66 0.19546066293331932 95 405 10 261 36 305
16405 -0.069160606952325551 0.97544103385601777 2.8032082293076956 106 197 86 0.50381073148180211 95 279 10 264 17 303 87 297 23 391 63 313 89 443
16406 -0.40590772636993988 0.89675171951127164 2.7740990401267194 87 168 74 0.92806036045013851 33 182 10 269 36 75 32 203
16407 -0.7024896899969908 0.67335982809759254 2.7461952087698211 220 194 150 0.53012594471039487 28 549 10 282
16408 0.29511957719595949 1.1654397472539104 2.981407781088262 95 66 39 0.22696508823040221 95 293 10 292 36 354
16409 -0.88242160356190313 0.95252991591472469 2.8059362962355459 69 116 45 0.18106682920512476 91 345 10 312 36 118
16410 -0.47779339044574137 0.78699312967535862 2.9416009480633125 84 147 59 0.089730582493901589 95 327 10 332 77 285 51 258
16411 -0.78694676873476999 0.76343689694557959 3.1553562945170985 185 161 126 0.23588091874001366 95 200 10 361
16413 -0.1135272226605038 0.35678245476347109 1.6549813279628762 69 43 19 0.43887803665656688 95 359 10 378
16414 -0.9977652944654033 1.0604718857810631 2.1829191108428283 184 159 122 0.2290301652527468 95 217 10 387 77 213
16415 -0.95106548003339164 0.97584863502287489 2.207957427376289 94 70 48 0.16682739663676002 28 454 10 390 36 418 77 218
16416 -0.70024228676999623 0.58142568529001115 2.3037920234477354 153 132 102 0.82408254919749879 95 375 10 397 17 31 12 743 1 76
16417 -0.67808318526268974 0.57112305059960122 2.3944074695107598 221 196 152 0.16726350262008194 49 708 10 399 36 422 77 325
16418 -1.0727055095996008 1.2276655109349719 2.609565624042784 155 146 114 0.13087125670756733 95 395 10 425 77 337 36 439
16420 0.21415837562541407 1.0928111735111254 2.856511564552719 175 151 113 0.30331659638766517 95 414 10 435 77 356
16421 -0.9200357633981987 1.0082997240193987 2.699233959791703 47 99 32 0.13455728707341036 95 97 10 440 36 318 77 250
16422 -0.33227971704782866 0.85180674989085048 2.8154834184046797 186 203 108 0.14524582636459396 28 519 10 445 36 458
16423 0.29912398145475999 1.1476566504550758 3.09985254432052 235 208 169 0.98744657329767638 28 126 10 464 36 572
16424 -0.3320615602606653 0.83725067954565413 2.9814880689200951 91 162 68 0.50711788602482066 74 294 10 467 77 383 7 284 17 341 3 334 84 262 60 315 32 326 87 257
16425 -0.47506921280643444 0.80839124654990269 2.9774361554159032 132 155 73 0.42567372066758591 95 329 10 471 77 293 7 167 17 257 83 347 60 114 32 237 87 102 44 146 23 111 63 271 19 358
16426 -1.2973418885177797 1.6962142287905542 2.9382478035838528 180 156 123 0.64818965013338614 95 311 10 474 36 491
16427 -0.47684270235233506 0.74163718859027039 2.9989713582436845 197 180 139 0.36509589964692635 10 476 51 267
16429 -0.71499726915583461 0.61388562919301126 2.2759671365392773 255 255 228 0.34064183029009798 95 576 10 504 36 517 77 423
16430 0.17609596797239641 1.1506420314983774 2.7790595118377506 76 100 46 1.8896972638045708 49 73 10 521 36 538
16431 -0.46126859074307669 0.87474641222166483 2.7833324288009083 215 202 120 0.38751647567975506 74 542 10 535 36 549 77 451 32 291
16432 -0.049121386847294175 0.37878100250691904 1.6010391472994614 158 118 83 0.5763490216416749 74 567 10 577 36 599 7 507 17 473 32 408
16433 -1.2648246045809748 1.6760614474683617 2.652097367208567 0 1 1 0.53826811660212215 95 501 10 598 36 545
16434 -0.077990382763567512 0.92119377874638642 2.8359109400829006 239 230 135 0.2490793951210214 28 732 10 599 36 621 77 517
16437 -0.3907268778169497 0.81945126243687394 2.9763051974638186 81 151 59 0.13513025411702298 74 492 10 615 77 529
16438 -1.0039667588159413 1.0397123551479552 2.9455406905450938 1 1 0 0.49486102224920292 94 958 10 620
16439 -0.72684330389500673 0.70758761006408477 2.9979359754251957 65 44 26 0.32819258628163589 49 784 10 623 36 646 77 541
16441 -0.04716722850663578 0.99145982356171525 2.8080307660821937 103 198 86 0.3041399552703371 95 696 10 643 36 668
16443 0.24697844894107912 0.57372148310747528 1.8198926203511971 228 210 166 0.33104678764283874 95 654 10 668 36 688
16444 -0.66388771145174241 0.56334997503744844 2.3817114022417489 255 247 191 0.32723496023692489 49 967 10 671 36 695 77 592
16445 -1.008910583146462 1.1008025211805559 2.8174975938341138 64 113 41 0.27387264364258357 95 644 10 682 77 608
16446 -1.1740283567778707 1.3349867878617003 2.6656360854268919 199 175 136 0.73435495298947862 95 633 10 710 36 707 77 601
16447 -1.1709540360289872 1.3327418222051968 2.832894439091548 76 56 38 0.34754389094791549 95 676 10 716 36 734 77 624
16449 -0.72079918589348579 0.75263853834425898 3.1374592049979149 108 73 38 1.0697848832237111 28 887 10 746
16450 -1.0284277167832512 1.212974918376426 2.568658693275661 80 69 57 0.54168068417238291 95 738 10 752 36 769 77 652
16451 0.052036064008976084 1.0272480534114021 2.798050863888939 178 212 117 0.24612375621679203 28 920 10 767 36 791
16452 -0.18454548555467898 0.86143318068012176 2.9049958831441609 93 176 72 1.7951684670169972 74 702 10 773 77 670 7 608 44 628 83 601 18 636 52 704 98 651 84 631 3 621 51 619 60 538 32 548
16453 -0.55937661865424626 0.7813404637872885 3.0922900863534659 0 0 0 1.3789877285564156 28 933 10 777
16454 -0.43627258992308526 0.78579610106417819 2.5872976709401656 255 246 196 0.14601940046614403 10 780 32 555
16458 0.57009630491339469 0.90558088769067946 2.5149201912726982 0 0 0 1.4775667608572138 95 781 36 819 77 697
16459 -0.096648719667157948 0.63057540950551361 2.0355448701854479 202 185 145 2.9923677810489502 38 2571 10 809
16460 -0.096648719667157948 0.63057540950551361 2.0355448701854479 202 185 145 2.9923677810489502 38 2572 10 810
16461 -0.83645065607210911 0.91763772769549468 3.5455208622877175 0 0 0 2.2682901925333483 46 802 19 712 74 695 95 751 10 727 74 656 95 708 36 779 17 554 1 586 17 566 81 502 51 584 32 500 63 446 70 571
16462 -0.96656881858015797 1.0737244676475923 2.874102687866813 224 200 154 0.99083688797427516 64 395 16 400 10 151 49 244 28 221 36 159 36 161
16463 0.15106881334483588 1.1083836418287218 3.0302445356978609 255 255 210 0.41822297564796823 19 327 95 450 10 462 49 422 28 521 36 567 77 382
16464 0.1528802386682811 1.3405018977938992 3.6313612572552167 0 0 0 1.1097205688052652 28 814 74 596 10 692 41 1032 19 673 95 681 36 727 77 634 46 626 17 525
16465 -0.81940303278331028 0.9113620600441249 2.7573840790613677 41 74 25 0.48057511883214782 74 474 10 608 36 622 77 518 7 421 17 383
16466 0.15771268136803121 0.87191890497464131 2.5243209416974355 197 181 141 0.80993345504006453 28 895 10 800
16467 -0.34906270092463287 0.80874214691571422 3.2507427409059519 0 0 0 1.3640130253085063 46 838 10 807
16468 0.059312597655567102 0.4081368186877361 1.6512897358123593 77 59 41 0.92565516447451157 74 6 36 11 77 208 19 219 17 14 32 14
16469 -0.1532880600561973 0.33282429452733975 1.6870238117449727 235 216 169 2.1722841872052685 28 600 36 13 1 460
16470 -0.86500947146411167 0.80971948242043834 2.2435146312938796 76 118 50 0.44584862475700432 28 34 95 230 36 28
16471 -0.85271817984841369 0.7995756706931465 2.2594982146070968 212 197 156 0.3783750538478669 10 21 36 32 77 25
16472 -0.74712776182184459 1.1045040727477637 2.6460667734681 198 182 113 0.27017034758438768 10 254 36 50
16473 0.10607006325381951 1.1734958791815755 2.7648913167872111 109 180 96 0.13912976288309017 10 242 36 52 77 242
16475 -0.87938795808888215 0.97078786130654182 2.7165861469579515 80 104 42 0.31716195560220162 10 278 28 368 36 77 77 73
16476 -0.23042501412259411 0.83416276390484168 2.8659522919360887 86 160 65 0.28408507480977863 10 290 36 100 77 265 32 223
16479 -0.80001886102001596 1.0995073665239523 2.6320852899837814 0 0 0 0.046474730411437959 2 298 88 255
16480 -0.55046837649150349 0.76208553944896829 2.8557982795464163 108 135 63 0.015953817883285419 74 171 36 122
16484 0.26069887959039034 1.1341225945519675 3.0251756182492975 90 65 41 0.13688688371350546 10 114 36 146 77 136
16485 -0.58435710861107881 0.7535326560332738 2.9008536519318238 205 185 105 0.046920868628331204 95 179 36 153 7 160
16486 -1.0609406302391535 1.0474825912376806 2.8411927485258013 186 164 127 1.7731951056887081 10 143 36 154 77 127
16487 0.2635158894481674 1.1330463427901061 3.0617408659652141 71 46 21 0.12273393876133597 10 129 36 170 77 288
16491 -0.97903298373191394 1.0805907605763385 2.9035504846849793 250 229 176 0.1203179092355553 49 266 36 185 77 152
16492 -0.6966569916032016 0.71686112012045067 3.0925660568766795 246 205 126 0.45542376405048213 10 191 36 221 3 133 51 141
16493 -0.7790883920896472 0.76525339083015409 3.2080669591380548 73 54 34 0.03464426057394928 10 362 36 236 77 189
16494 -0.71728233919804596 0.75806354821773758 3.2493065249756792 214 195 154 0.019429770693410727 95 205 36 239 77 193
16495 -0.797373742560605 0.87496807816576105 3.6438858642423142 207 184 141 1.5192861184159068 10 208 36 255 7 189 32 165
16496 -0.90709431654067751 0.91006403400675273 2.2773360025573646 103 92 81 0.8213011158300324 95 18 36 277 77 324
16497 -0.65408777450024025 0.55719923357501511 2.3625040419865195 199 175 135 0.22717848541854557 10 229 36 278 77 224
16498 -0.097948612050874781 0.87385784778448661 2.5742393493923532 204 187 147 0.28870782129971084 10 232 36 279 77 35
16499 0.18048818464246583 1.0303728340496126 2.6827982276146791 76 68 57 0.35578760407981741 10 402 36 281 77 39
16500 0.20203459034276863 1.3449742424065436 2.7269291920634413 63 85 37 0.17710255824044899 10 235 36 288 77 234
16501 -0.78755002571778254 1.1016851831889451 2.6459173932278373 205 184 115 0.089605370047160141 10 256 36 296 77 237
16502 -0.77309257113228624 1.0647270647436871 2.6508298073774066 190 180 108 0.28545145961995139 10 259 36 300 77 239
16503 -0.79386121750010108 1.0427304469690197 2.6773754393091553 196 176 106 0.36496839778010165 95 411 36 308 77 245
16505 -0.24976424064264119 0.8356456271827456 2.880310587477148 88 160 66 0.21214166296438625 10 98 36 350 77 269 3 317
16506 0.079544686760402494 1.0717560022936301 2.9631342321521328 98 152 58 1.2669812630332349 95 132 36 359 77 378 17 123 25 212 83 156 44 169 84 122 3 124 51 271 32 119
16509 -1.200072325959185 1.3819653754945012 2.8158499821899308 116 88 61 0.13171949708405051 10 327 36 369 77 114
16510 -0.76551899195727358 0.77664463021966634 2.9378250167760314 223 199 155 0.66504558166155514 10 472 36 384 77 386
16511 -0.89929204120802708 1.0122038501637149 2.9373467728305602 155 134 104 0.012728597647780837 10 343 36 385
16512 -0.58477493878692832 0.77376711031600764 2.9745956016054751 98 148 64 0.43507929362987824 10 345 36 386 77 295 7 290 51 264 32 236
16514 -1.3230133001928681 1.8363445512387893 3.3811047760755297 139 124 108 0.22961848429075671 74 196 36 403 77 195
16515 -0.78179348122089976 0.8719997647497113 3.6917975375917194 165 142 112 0.10568940814358069 10 209 36 410 77 316
16516 -0.81297704884936906 0.72663371064646121 2.2379691811901319 70 123 47 0.12988324437625245 10 388 36 415 77 215
16517 -0.72750588632143487 1.1593378973504 2.6171843564586781 103 176 83 0.35809839649190495 10 412 95 498 36 430
16518 -0.77898061376304573 1.1092268427039691 2.6332783621783644 107 176 81 0.15727639380166722 10 421 36 436 77 332
16519 -0.33605604938980221 0.98369104680201391 2.7244867371371044 51 111 52 0.19481732860810327 10 423 36 440 77 344
16520 -0.12402081307771118 1.0032090088199836 2.773579065668371 201 214 131 0.11643111043406879 10 427 36 445 77 348
16521 -0.70311533396719705 0.68241110398120397 2.7281750898307333 98 73 50 0.17493638796303168 10 532 36 452 77 354
16523 -0.27158166420803226 0.82818995380732374 2.882646234134719 183 168 92 0.19964404885918133 10 455 36 471 77 272 3 318 51 348 60 306
16528 -0.69398959472178934 0.69903187428001623 3.1238573104616201 118 83 42 0.47493149885093472 10 357 36 504 77 403
16529 0.26398113844287402 1.3249769728631979 3.6443813504333238 191 171 132 1.276225327292833 74 317 36 508 77 411 7 388
16531 -0.71725670482734882 0.72513280976770689 2.8139082555583452 206 181 141 0.18431313613832004 10 546 36 559 77 522
16533 0.2685369726673395 1.1387746430607828 3.0105708866577792 71 49 28 0.51140718392980133 10 308 36 562 77 526
16534 -0.73584460829099096 0.72489887222975802 2.8576713847478064 98 73 48 0.75257141270131822 95 647 36 564 77 380
16535 -1.0787614424316825 1.2033234428787034 2.9124476512049227 83 60 38 0.13201217029481155 10 556 36 575 77 465
16536 -0.84644514579500052 0.93017964832881994 2.9691328068553853 0 0 0 0.0014583163797760885 12 1414 74 499
16538 -1.2893373567993793 1.8341048315035373 3.360988797351506 0 0 0 0.75130392797570689 28 592 95 549 36 595
16539 -0.84628870340460638 0.83503395851186712 2.1874220466687051 102 147 63 0.16164462511199462 10 502 36 603 77 496
16540 -0.27919683484220081 0.87563095437171312 2.7850249915573979 193 201 116 0.21958506854301965 10 647 36 618 77 514
16542 -0.084939483836469654 0.91714990330322788 2.86179906252567 92 164 67 0.085693364360716229 10 538 36 624 77 567
16544 -0.60992113221899846 0.74690935321758312 2.935456793598199 83 143 59 0.10874013655882064 10 616 36 638
16545 -0.77516359521220823 0.80238072159598872 2.9254991704069084 89 113 47 0.17378837715607851 10 661 36 639 77 466
16546 -0.13214235799048266 0.62396889348617401 3.0337109622684357 0 0 0 0.69014322801117067 36 642 77 536
16547 -0.72696982448298331 0.7083451228862504 2.9986457481283417 66 43 23 0.24591712230842455 10 624 36 645 77 540
16548 -0.76926832761887909 0.75642527481668764 3.0718786664024913 78 55 35 0.533592762303149 10 628 36 649 77 545
16549 -0.77127942259299476 0.75187558871557314 3.1770365710841753 84 56 28 0.385072471914575 10 629 95 478 36 650 77 487
16550 -1.3376082190258387 1.8054300662359799 3.2178948231546176 0 0 0 0.86410680510177917 10 688 49 800 36 652 77 482
16551 -0.72280228035112837 0.77054866230445407 3.2833651367283059 199 183 149 0.48561689264502317 10 569 36 654 77 547 46 403
16552 -0.77311724775690749 0.9299494309427242 3.7178634928076857 232 214 180 2.4857917602659074 28 707 36 658 32 456
16553 -0.78645989086910795 1.0853830091761445 2.662354159790203 176 177 102 0.36003597387395897 10 674 36 666 77 562
16554 -0.047075024728466822 0.9914092973955676 2.8078954331229151 105 204 91 0.26927990747934127 10 642 36 667 77 602 95 695
16557 -0.45784356710264629 0.77899262561736715 2.9088008573340938 82 149 60 0.47950597143096924 10 656 36 674 77 570 51 476 32 425
16558 -0.45784356710264629 0.77899262561736715 2.9088008573340938 82 149 60 0.47950597143096924 10 655 36 675 77 571 51 477 32 426
16559 -0.79691801451585087 0.7624245168167284 3.1549394851712527 180 157 124 0.22565081336319773 95 620 36 681
16560 -0.79985060232725946 0.89919727525962267 3.4472248280941877 0 0 0 0.34730066308560736 74 597 36 683
16562 -0.97287638694907308 1.0275306217696054 2.1422395720921132 254 241 190 0.321162632373795 10 698 36 690
16563 -0.87384543341360643 1.1419387693600291 2.2863276949911056 0 0 1 0.69234404503058911 10 637 36 694
16564 -1.2039465008529922 1.492783439575524 2.5498714667246158 152 213 109 0.74365024352325593 10 735 36 700 77 598
16565 -1.1746728288945663 1.3472051179969553 2.6654321902056353 201 176 136 0.86714345378158519 10 709 36 706 77 600
16566 0.24360386922755795 1.2096706450339103 3.272460896673242 209 186 141 1.2662849299157626 74 594 36 722 77 582
16568 -0.77775222835186442 0.690087204435333 2.2570200894720909 132 131 65 0.3854273115488589 10 728 28 897 36 730 77 615
16569 -1.2884083282897536 1.4812256283112371 2.8454750808621663 186 162 128 2.3705906377620738 10 743 46 770 36 736 77 625
16570 -0.094826964201139147 1.0229310842943351 2.7388862626500607 70 144 81 0.97607457933099795 10 703 36 752 77 638
16571 -0.094826964201139147 1.0229310842943351 2.7388862626500607 70 144 81 0.97607457933099795 10 702 36 753 77 639
16572 -0.84351150278104903 1.1609773656182394 2.6390577954113508 107 179 83 0.26623754030053365 10 737 36 754 77 637
16573 0.020155046812496351 1.0303485893713609 2.8018401494566101 226 234 137 0.76817557500552469 10 707 36 755 77 640
16574 -0.66002343150200848 0.58843619902868005 2.217781006593297 0 1 0 1.5247381470233217 10 764 36 765 77 649
16575 -0.10945432348446407 0.94449402232247992 2.8155329142173864 185 214 115 0.41103294735059975 10 754 36 771 77 655
16577 -0.64072193213668249 0.67262646965067541 2.715941658356118 255 244 194 0.58877594630132679 10 771 36 782 77 666
16578 -1.2253701741767067 1.4281882318964003 2.7399698055609258 199 174 137 0.8194976922460564 10 796 36 792
16579 -0.36383105888456735 0.82205012805029298 2.9070496542525714 81 153 62 2.911724716479243 74 712 36 793 77 674 7 616 60 537
16580 -0.43544085875350119 0.31981250084495688 1.8264035273883623 229 210 164 1.5040918168323616 74 720 36 803 81 517 52 697 35 712 66 630 44 633 98 644 84 626 60 542 32 554 23 547
16581 -0.78324816294929334 0.34054341149459011 2.3113626895996413 132 135 79 0.3905174759920389 10 779 36 804
16582 -1.0930985351537508 1.8126019324815514 3.0804293594665002 0 0 0 1.8441275849761471 10 798 36 808 77 688
16583 -0.88273748427511345 1.1489928384642185 2.1910329430380098 119 131 64 1.3904899551866496 10 794 36 810 77 689
16584 -0.85058185221231697 0.96504353454255554 2.7175588915773634 198 195 109 1.2054093068562353 46 590 74 537 95 522 10 441 36 453 50 1300 12 1177 16 924 6 666 91 692 64 676 94 484 49 606 77 355 7 335
16585 -0.20805513041524912 0.88875869112266526 2.6052035355101983 211 194 153 1.9734204879444242 10 799 36 806 77 686 28 954 81 519 18 659 98 682 84 656 3 636 51 634 60 552 32 558
16586 0.31959972647819179 1.1916088458209813 3.2053296999067249 0 0 0 1.7812509367793519 46 772 19 682 74 677 95 728 10 744 36 787 74 693 95 745 77 661
16587 -0.69268701480449757 0.76453038957990871 3.2305511459146281 218 207 170 1.2132097131578978 46 759 10 724 36 764 19 711 74 683 95 733
16588 0.21881836323562914 1.3574104715765536 3.6862214613704256 194 170 129 1.4635196495776368 28 846 46 757 36 742 95 652 10 666 77 635
16589 0.30779473708627714 1.0633242125869637 2.638439311170433 0 0 0 1.4513164086986818 49 710 28 618 95 627 19 645 74 606 19 565 10 639 36 608 36 699 43 983 41 728 74 440 46 556 95 495 77 558 77 594 7 408 17 189 74 338 1 395
16590 -0.53515050285551524 0.78152659148200709 2.9439948791982178 82 144 57 0.23751213546096722 10 157 36 175
16591 -0.33240138090215854 0.8138640620755917 2.907607762585751 182 170 92 0.23234209287354943 10 459 36 479 32 317
16592 -0.75152358293285904 1.2119235841509055 2.5864626050675175 112 188 91 0.14438652258889018 10 237 77 41
16593 -0.74543713988375992 1.1178838080618285 2.630536414332493 108 173 81 0.14729045741143884 10 244 36 44 77 45
16594 -0.33298116479855078 0.98030707382590399 2.7411549009648826 52 105 54 0.012892890540819915 10 74 77 66
16595 -0.34700476366612654 0.86709078887614477 2.8029740708651438 250 229 134 0.32411773031707641 36 84 77 80 1 148 81 220 60 76 63 69
16596 -1.2514701095840426 1.57556555696749 2.7522922925003606 189 164 128 0.81137085258536035 28 168 36 112 77 88
16597 -1.1752034683644659 1.3492701885592069 2.7616538362232395 177 155 119 0.12571005497517293 95 107 77 92
16598 -0.30368436125681758 0.81595367031508848 2.8800270296677466 82 154 63 0.11553418175322479 36 117 77 99 51 77 98 80 32 98
16599 -1.0990521566371085 1.2329975149200103 2.8358378985891912 189 166 128 0.20827136849836131 88 363 77 123
16600 0.28173715533255023 1.1487906825087053 3.0295888142036502 54 38 21 0.14314853863606491 36 147 95 136 77 135
16601 -0.085485139357100365 1.0635163645238168 2.9760246194565165 89 158 64 1.1162004084205284 36 148 77 137 84 119
16602 -0.40507455766499534 0.80209514504056134 2.9382203534933282 89 140 59 0.12605946636597931 36 157 77 144 32 117
16603 -0.15828195589756328 0.90504022324697975 2.982953967117846 123 168 70 0.078300619861120815 10 133 77 147 32 132
16604 -0.87152391485804936 1.0303064098975987 2.9148277418350093 193 168 130 0.40403362526672093 10 161 36 183 77 155
16605 -0.55515605317451755 0.77337669899373673 2.9489692011514808 79 140 56 0.098762756558713194 95 184 77 158
16606 -0.52923905246785663 0.11569393392132669 2.9892520428034239 1 1 1 2.8294805537481529 36 212 77 172
16607 -1.0008496846576851 1.0606513291942343 2.1638786098191227 159 137 104 0.43323560529101202 10 383 36 266 77 210
16608 -0.15129187354201337 1.0176595018877916 2.7549106445901521 64 122 65 0.12333445071160781 10 67 77 244
16609 -0.10182145020258399 0.97094966003539585 2.8034230187955136 179 210 114 0.15946561335692228 36 317 77 252
16610 -0.54471252446128615 0.76594155176239942 2.8736559252795666 82 126 51 0.049893154827691383 36 365 77 280
16611 -0.54444485843393542 0.76306745959706834 2.8740730862990569 82 126 51 0.20551427488935223 36 366 77 281 32 225 7 271 87 81 63 97
16612 -0.70116088233465468 0.74177502302253151 3.1680901051427082 203 188 148 0.49297160051756805 36 400 77 309 7 180 46 235 17 158 81 151 25 152 35 129 52 130 66 145 83 158 18 276 3 257 51 281 60 323 32 250
16613 -1.3843440134565601 1.8089790110592565 3.3348460354578675 181 157 119 0.33965527998853551 36 241 77 310 7 282
16614 -0.048316406388137036 1.1237316500128232 2.7275651907651493 149 163 109 0.36205683747649409 36 435 77 334 32 364
16615 -0.40791917659091476 0.9812656391627278 2.7181751135646604 194 175 107 0.24362739884469362 10 424 36 441 77 345
16616 -0.20105850814954956 0.86983434502379908 2.8396727101060129 148 183 90 0.49711103366865961 36 333 77 360
16617 -1.3077489582983515 1.6253782317564685 2.7412628583534326 1 0 0 0.20391507801580228 95 419 77 365
16618 -0.10593752127401299 0.88990836070297274 2.8726618595562319 175 164 89 1.6620733427769889 36 468 77 369 84 344 98 363
16619 -0.1030963081355583 0.90100664351296988 2.8786339479332153 175 164 89 0.21133709619649044 36 467 77 370 84 350 98 368 3 324 51 352 32 311
16620 -0.25286038112665932 0.88599925959829451 2.8742392495927747 149 160 80 0.21571291184535721 36 470 77 373
16621 -0.39258922154285258 0.82351805494527819 2.9818378601931061 81 150 61 0.46328464517156737 28 403 36 382 77 385 7 285 17 256 81 132 74 191 98 264
16623 -0.76274374962602998 0.87849399415696872 3.6886504749845863 231 224 211 0.45005582288037621 36 409 95 349 77 413
16624 -0.67605630044425813 0.58301441958983602 2.2766326157654664 110 77 49 0.83157293746733474 36 516 95 574 77 422
16625 0.043539840375293716 1.1485099319712653 2.7565491101371986 94 160 87 0.43503054693092302 74 531 77 437 7 481 81 407 60 427
16627 -1.1941745457683546 1.519640610860471 3.1241508514057665 159 164 174 3.4713780623721968 36 587 77 480
16628 -1.3954628335136749 1.791024135755658 3.2733576950635666 254 232 178 1.7879019534969873 36 593 77 488 51 379 3 254
16630 -0.82647345209863099 0.88782054329782789 3.5679862477136917 0 0 0 0.47164158490522362 74 514 77 495
16631 -1.2481955285982422 1.5868201579832977 2.5724178203318147 0 0 0 0.38972953590074705 10 673 36 664 77 508
16632 -0.011135179609493083 2.3872921310517201 3.2278569109036339 0 0 0 1.6305719865739621 36 678 77 537
16633 -0.60566416263805034 0.75308302976120056 2.9008125898028316 104 140 65 0.38737700674766851 36 636 95 615 77 572
16634 0.30767320349441329 1.2819343969310393 3.2994748594419039 0 0 0 0.62377527325602988 28 674 49 774
16635 -0.92169684344495029 1.2624435476136331 2.4644174108399306 0 0 0 0.70634284230802402 36 698 77 593
16636 -0.58014095097012019 0.70081405152314824 2.7581708627786026 85 125 60 1.3094714482923873 36 710 77 620 32 518 89 532
16637 -0.37144572441819718 0.82434366238008105 2.9619192556896565 79 149 59 0.57805126435636933 36 738 77 628 3 575 32 521
16638 -0.019977157617073981 0.97355083508807971 2.8601246262626443 92 169 71 0.38661353648039021 36 757 77 642
16639 -0.84873737948845795 0.81260425436970241 3.0211890793403438 0 0 0 2.1530039827526739 10 761 36 788 77 662
16641 -0.32705286312226634 0.87219701166332475 3.3025821674211771 0 0 0 0.10071930055907724 36 818 77 696
16642 -1.3038747351111479 1.6381438164052087 2.8052256061391407 73 50 23 0.42017553832808119 10 325 36 138 77 101 46 339 19 76 74 94 95 105
16643 0.2220418480807948 1.1096630516643253 3.0550410898374398 255 243 192 1.1757336530489029 46 752 74 625 95 702 10 714 36 737 77 626 49 842 28 742 17 551
16644 0.023100619932531895 0.40435524869812739 1.6108539552126577 255 249 176 1.3668033802595945 28 708 10 632 36 659 77 552 74 628 95 682 7 529 32 484
16645 0.039602810374216292 1.0080361580089598 2.8334310039401402 216 218 121 0.37103376277069461 10 594 36 619 77 515 46 702 95 635
16646 -0.68817655352670837 0.73177339384873041 3.142429015828379 216 201 158 0.34645018818392437 10 359 36 398 77 404 19 205 74 308 95 341 17 157
16647 -0.15666472579909826 0.87602841108500173 2.8459473354752003 64 102 43 0.6252144224805406 10 444 36 460 77 364 24 955 45 1050 43 1012 41 925 79 767 19 523 46 475 74 383 95 438 7 434 17 396 1 418 81 365 8 504 25 491 42 539 35 401 66 432 44 448 83 421 52 386 18 430 60 377 32 378 14 483 87 305 23 399 63 323 70 468 89 451
16648 -0.83319959049664694 0.91419642838221038 2.7780451563696054 176 173 88 1.3152293553776675 6 1394 91 1356 64 1384 16 1307 95 608 41 951 46 670 19 535 10 652 36 625 77 454 50 980 12 1186 34 1128 2 957 88 893 64 946 6 979 16 937 49 759 94 939 28 672 88 1051
16650 -0.042129652982759468 0.37514050251070108 1.608705307994811 255 255 240 0.56916896348915802 74 206 7 2 17 165
16653 -0.98356301101438581 1.1064897490975156 2.6508926619169362 90 158 72 0.21913889928276895 74 77 7 39 17 39
16660 0.062482963333314025 1.1280901184107741 2.7655723742894196 63 112 53 0.61521028341321782 74 64 7 49 17 48 81 206 60 210
16661 0.113112767649204 1.1504879870915179 2.7766710719935159 56 97 48 0.23364550783334925 46 71 7 50 17 200 81 212 60 217 32 199 87 165
16662 0.1131181966157557 1.1493411974622085 2.7761301979594069 56 97 48 0.20742777309780278 46 72 7 51 17 201
16663 -0.22200235696093437 0.98126704078707072 2.7534642531576545 83 98 56 0.14185087414111763 74 85 7 65
16664 -0.42565657367274395 0.46737715058463303 1.968442339823915 0 0 0 0.033161782093193731 12 634 39 786
16668 -0.16286825530278545 0.96324734022657876 2.784375489921052 79 136 61 0.20019810980671776 68 310 7 79 81 76 66 98 23 209
16669 0.14658282390538807 1.0693641200127031 2.8397574544526467 209 189 105 0.22962096497305304 19 98 7 83 17 72 1 110 35 153 25 204 52 292 66 151 44 281 83 255 18 265 14 175 79 245 87 186 23 117 70 129 89 142
16670 -0.54148551240611376 1.5699999129914162 2.8923531230624926 0 0 0 0.040868264249557681 34 368 79 139
16673 -0.15035679403158794 0.93555987744526603 2.8070160515439055 83 131 59 0.29325664130280293 95 99 7 93
16675 -0.20602137034991011 0.90359020440384186 2.8112321090881127 90 131 59 0.24779772938510078 79 238 7 99 17 89 81 86 44 110 87 67 23 94 63 84
16676 -0.5212958514499314 0.85862784125333602 2.7903816097701131 168 162 91 0.084379588719906737 74 136 7 101 17 87
16681 -0.30915805493214388 0.86103476182848127 2.8089674942474656 131 146 73 0.058889242099036954 19 159 7 112
16682 -0.50889799188293616 1.4571790809750513 2.4992639299988175 0 0 0 0.11982044233634415 29 497 79 87
16683 -0.15082695159437925 0.60818747259401662 1.9085671411791618 0 0 0 0.010025039587089262 31 120 65 122
16684 -0.50438607910641342 0.84054384795022907 2.8016821677849104 190 178 103 0.22625019789040671 46 181 7 117 87 49 63 59 70 117
16685 -0.22986754519060182 0.84152935268435947 2.8663948162854678 83 155 62 0.19395840898956554 74 149 7 137 17 121
16687 -0.49496053694273023 0.77378639283866324 2.8849080176677404 188 171 92 0.10046951093599324 36 134 7 156
16690 -0.53160540588423155 0.79681888898454689 2.9774179438752659 82 141 55 0.30958025590210508 77 165 7 168 32 130
16691 -0.69611838085310629 0.58268936762482615 2.2755703940162944 0 0 0 0.09806670587445171 54 293 75 1061
16693 0.10007975519129378 0.44339053146732837 1.6619142533889844 255 253 212 0.50330509935210055 19 218 7 198 17 169 1 299 25 420 8 425 42 461 35 330 18 6 87 138
16694 -0.18482149452650362 0.36515783992514345 1.6598777827622022 255 255 212 0.37740987181287555 19 224 17 17
16698 0.080106289438985095 1.1269546408914717 2.7750256640997253 106 146 71 0.36279206640813844 95 56 7 224 17 204 81 289 60 290
16700 -0.78521647871328615 1.8810125921124285 2.4546868442989589 0 0 0 0.030199840859857011 22 975 67 1066
16701 0.008759171288512238 0.99887998026878044 2.81601889062908 206 199 115 0.34317428265323058 74 95 7 238 8 354 25 174 52 98 83 246 18 115 23 224 70 369 89 250
16704 -0.15317691167448444 0.91915510289603275 2.8164172719460407 87 129 57 0.25520943216130382 46 148 7 250 17 231 1 140 81 90 42 381 66 110 44 118 83 111 18 102 98 74 84 66 3 68 51 59 60 228 32 214 14 296 87 179 23 221 63 200 70 266 89 138
16712 0.029895079355565173 1.0151083393730509 2.9692917968862131 134 148 75 0.45915691281684551 10 110 7 267 83 265 51 273
16713 -0.086158179643325228 1.0422217252348607 3.0455575750145769 223 206 164 0.26943447052400082 74 291 35 438 44 289
16714 -0.04501501973874715 1.1027867346347493 3.036787202749851 211 196 156 1.0946750692604699 10 465 60 245
16715 -0.51408981408350007 0.79672619862388261 2.9752937754740607 83 142 58 0.23445691685396419 95 331 7 288
16717 -0.66940480315966577 0.72612636239198058 3.0838425857108982 254 236 185 0.12737572541151271 46 233 7 302 81 247
16719 -1.0150610693933162 1.6710332180858523 2.4859235985563521 0 0 0 0.10574940127667776 61 1641 93 1634
16720 -0.45738492643018747 0.94103118192506752 2.7314548975432187 73 110 47 0.90606496179114959 74 366 7 337 81 190 60 351
16722 -0.12654761160922148 0.88558333687410529 2.8693023357960699 80 149 61 0.20128334876231141 74 386 7 364 17 329 81 304 44 277 83 251 52 264 18 252 84 343 60 307 32 309 77 366 87 189
16724 -0.88911988495911687 0.7897052006746228 2.8320662548279674 0 0 0 2.747769002293138 39 1533 7 367
16725 -0.88911988495911687 0.7897052006746228 2.8320662548279674 0 0 0 2.747769002293138 39 1534 7 368
16726 0.048682765805209909 0.41643425043268578 1.631437464776702 10 4 1 0.59732230895129357 19 382 7 394 1 457 32 410
16727 0.27817493356257833 0.59606006372144116 1.7180988583689214 0 0 0 0.17356390259485641 46 542 7 398
16728 -1.080024801662403 1.2060593944063129 2.5803590631852904 115 100 77 0.93546902649025343 74 529 7 405 17 438
16729 0.12220588673871519 1.0809409067468221 2.8187174747509198 100 139 62 0.2304089191180563 19 424 7 417 17 384 1 403 81 357 66 441 44 450 60 434 14 493 35 516 87 298 23 398 63 316 70 448 89 493
16731 -0.06622634716486514 0.94847617465337364 2.8428360044153247 200 192 108 0.45439290311797403 74 467 7 427 17 315
16732 -0.46470458032013451 0.83907374062539608 2.8035866405002974 105 127 61 0.17535185402253292 46 595 7 431 28 659 1 421 70 456 89 431
16734 -0.62312535288386073 0.71994810790807462 3.0128833801705079 199 181 144 0.10350621218250143 77 539 7 456 17 416
16735 -0.35188238741055677 0.33980184175837053 1.7237610752700148 0 0 0 1.1780863533454813 10 667 7 472
16736 -0.29467523261051559 0.8424414301495462 3.0624821968387361 0 0 0 1.1127630433922677 74 556 23 407
16737 -0.26417412997286149 1.0579111785398245 3.1668579366320957 0 0 0 0.73255602798512542 28 683 35 526
16739 -0.19306857734639657 0.87725319430357251 2.726467473818011 80 100 56 1.7862001807972763 7 518 17 448 52 617 44 498
16741 -0.38040606938903299 0.79325689320904602 2.9533644180641017 77 149 57 0.20662619110961983 74 649 7 550
16742 0.12861140261952472 1.0567038278164087 2.8556899989753028 110 173 75 1.2384354446473687 19 658 7 569 17 536 1 547 81 474 66 577 25 753 44 589 60 502 83 553 14 593 87 400 23 502 63 423 70 545 89 536
16743 -0.0081298173930712744 0.37241412301132071 1.6101609316270107 193 157 128 1.7601005828290339 7 572 17 542 81 465 66 537 44 575 83 559 18 581 60 482 87 390 23 504
16745 -0.19483316209396878 0.21622392377958083 2.6051818994671141 238 215 124 0.055237943618873769 74 673 7 600
16746 -0.48171659035437242 0.78795292371624914 2.8394623507636831 237 218 124 0.53701035631857474 10 100 36 102 7 262 41 349 46 199 43 683 1 282 27 186 81 95 63 80 89 247
16747 -0.42781356664853415 0.87816331857810481 2.7823581050796666 190 177 100 0.25255345167504717 61 1073 38 1103 9 1281 30 1204 97 1347 57 1217 62 1207 26 1158 99 1060 100 1266 72 1406 68 1452 29 1507 37 1055 71 1088 5 1154 55 1048 31 1022 93 373 90 398 75 1124 48 1534 65 427 88 226 46 479 28 518 19 446 95 433 74 376 7 351 17 308 1 346 81 295 44 250 83 223 18 71 60 205 32 292 87 230 23 286 63 239
16750 -1.0759043630001304 1.2088759752164941 2.6344675935760997 83 134 61 2.1792325052624992 49 746 28 654 46 327 19 419 74 449 95 504
16752 0.052130102897878249 0.41473710089413363 1.6421114032432635 136 104 68 0.11443724868316545 7 7 17 9 32 10
16753 0.0019451245496046807 0.35316490885256541 1.6402204221702943 64 46 28 0.12708976179442999 7 8 17 13
16755 -0.66341824417552953 0.59966634102812899 2.2610971150200383 234 211 187 0.17117314108707377 7 25 17 29
16756 -0.59834287470022929 1.1735201699442284 2.606445580206163 0 0 0 0.28371380772925353 28 75 78 208
16766 -0.36462119870739029 1.897469805223424 2.444987010864617 0 0 0 0.011510262627799047 15 465 72 489
16772 -0.52129585144993151 0.85862784125333647 2.7903816097701131 167 159 89 0.084379588719848297 7 102 74 137 17 86
16775 -0.23793050843492153 0.89447656609157133 2.8115239064151103 77 117 52 0.17456989672940781 7 254 24 335 17 91 87 62 63 79 70 135
16780 -0.3323710388863787 1.4064277554260149 3.0732545802965765 227 207 120 1.6740284955464975 78 391 17 105
16782 -0.46081229998232837 1.7009168930436114 3.1498414269389934 0 0 0 1.4783051640240981 2 295 7 259
16784 -0.58469718973548002 1.9792924999591663 2.4459394804076346 0 0 0 0.24935573516336557 22 417 30 622
16787 -0.56568597589213598 0.76073718324433393 2.8563987436956659 215 188 110 0.011463799067340016 74 173 17 131
16790 -0.77608677247010405 0.77563953046574985 3.0132124154517026 130 97 58 0.26526852517156774 7 294 17 151
16791 0.14994555491338621 1.618249013362125 3.7775560161845005 215 194 149 0.091663082368016263 22 677 17 161
16792 -0.98565642067927906 1.0399827254800853 2.2065035347020534 222 198 154 0.1455642291421643 7 202 17 177
16793 -1.1358343670261435 1.2708286644343758 2.7902985841970902 211 193 156 0.31837604490795962 43 632 17 193
16795 -0.68323292469870889 0.64089938119740841 2.5740473314179981 202 184 143 0.54933278185667422 7 221 17 199
16796 0.10058534539779798 1.1406354255774622 2.7774280762771575 127 151 81 0.30007868780014152 74 65 17 203 81 213 60 291 32 201 87 232
16797 -1.0575045618229679 1.1816689780909986 2.8424012873409898 218 196 153 1.3610716821038844 7 342 41 622 17 206 32 208
16801 -0.27963209250949267 0.91190762494721644 2.7869735350522378 64 111 50 0.16860849386867949 19 141 29 295 17 220 66 93 87 168 63 188
16802 -0.27964063300059755 0.91246114952644009 2.786936855116612 64 111 50 0.099686036460024011 7 243 29 296 17 221 87 169 19 140 63 189
16803 -0.13477786384863114 0.95036397882297785 2.8017481559783199 79 122 55 0.25378247792535374 7 241 19 306 41 559 17 222 81 223 23 218 63 195 70 261 89 243
16805 0.097862185241827687 1.2725272958975757 2.7449144846237825 0 0 0 0.076927547959968159 9 386 97 422
16806 -0.18022505519812984 1.8287099221084029 2.4737604179393737 0 0 0 0.099891857632813913 62 391 67 505
16808 -0.19577900945154264 1.3322668952716916 3.4112195838320605 0 0 0 3.4485104671516575 54 1138 61 442
16814 -0.14083332154797715 1.337549220776298 1.3558929634097965 0 0 0 1.0033016799340313 62 858 90 897
16816 0.16976523020430925 1.0827266527671413 2.9434064056266731 68 139 51 1.9192779249743555 7 126 17 239 3 345 51 440 81 307 60 240 60 314 32 230 32 381
16818 -0.55177359740931609 0.76416881536605852 2.8532566251363316 95 117 54 0.35453095874879398 28 175 17 246 1 177
16819 -0.55177359740931597 0.76416881536605863 2.8532566251363316 95 117 54 0.35453095874883161 28 174 17 247 1 176
16820 -0.85992588255134306 0.93915181557433591 2.9501723625972551 235 213 165 0.27685806392422052 19 468 17 249
16821 0.25585324608955984 1.132225367266497 3.0867798166940514 101 74 45 0.47506666106744744 7 381 17 253 81 145
16822 -0.5389259107323503 0.78875010677866353 2.9411626478501116 86 151 61 0.36083801174234703 7 283 17 254 81 240
16824 -0.79122497260552949 0.75279669663373094 3.1018373898663669 219 178 110 0.31721474261927524 7 303 17 263
16825 0.18180615796563801 1.3275811483316728 3.5468640768196034 255 247 197 1.0883207067536038 17 266 1 288 81 259 32 253 87 205 70 292
16826 -0.95580896914170055 0.94496868698806502 2.2497568349776969 227 208 159 0.80244051077554612 7 315 17 278
16828 -0.58815505157849735 0.83858657491105359 2.7929025758305652 103 124 59 0.18246490577207419 7 354 17 312 23 194 63 237 87 226
16830 -0.58719626015163418 0.80061165721907157 2.8199734388991349 54 89 38 0.43428610953891145 7 362 17 321 60 216 89 356 70 373
16831 0.21092181355647055 1.1186422833665672 2.9513518619993171 250 228 176 0.37604608279902274 36 352 17 323
16833 -0.27375964926916246 0.94080559776095085 3.0991481843796698 0 0 0 1.0272486576753952 95 544 17 342
16836 -0.74926485396445386 0.83296894459319892 3.3313315754283535 76 52 23 0.5545830718384922 7 465 17 347 1 371 32 340
16837 -1.0066330122764378 1.1175266017926204 2.6534682227131494 182 211 107 0.37976953878852665 7 409 17 366 1 477
16838 0.049554951044490349 1.1157841201353864 2.7696316480864316 196 190 117 0.18806776373573308 7 413 17 377 60 360
16839 -1.0100860539964092 1.1040475506575818 2.8082644199774882 67 121 47 0.72713719665195686 7 420 17 380 81 40
16840 -0.67839528456743381 0.6333904956603077 2.6180801384300953 255 240 186 0.039454767057591475 7 484 17 381
16842 -0.56703362209038932 0.70198474194627003 2.6986472897382519 57 98 40 1.2082019082336017 17 391 81 405 66 314 3 181 18 36 51 205 32 194 87 150 23 369 63 48 63 357 70 115
16844 -0.8004983510305419 0.80289876456426035 2.9579205178146184 0 0 0 0.92531160035683868 7 445 17 403 1 435
16845 0.27955509703238912 1.1542873568605263 3.1353531130769854 73 49 24 0.35108795380641605 7 382 36 580 17 409 1 356 19 336
16846 -0.22209216336971341 0.78416202225688747 2.9792514813891278 227 209 164 1.9692572505511703 7 449 17 411
16847 -0.1251973193802671 0.79515996954860546 3.0078763871323155 0 0 0 1.1923556544132574 74 494 17 413
16848 0.28675414290723578 1.1801260411758583 3.189396786509938 96 71 43 1.1358968017809097 7 384 17 414 81 454 60 481 32 450 87 352 63 373
16849 -0.63583701040669827 0.76425240611142808 3.038045465456503 211 192 152 1.5287375588125336 7 457 19 473 17 417 23 402 42 510
16850 -0.7631660471594145 1.0687161133090222 3.1994722602802033 0 0 0 1.7193712522864697 7 458 72 524
